         -1.3808175201        1.4634869133       -0.1706674149
         1.3411851830        1.3093016470       -1.1374800579
        -0.0065162676        0.4212925565        2.1515991923
        -1.9763535646       -0.2141737563       -0.8676353832
         1.8590365149        0.5113502208        0.8997988169
        -0.0955937784       -0.1300118685       -2.1002793074
        -1.4337062656       -1.0117038491        1.1653995920
         1.5920765242       -0.8886453122       -0.8332970864
         0.7693137385       -1.4307692500        1.1746649755
        -0.4364301991       -1.8213530422       -0.6705695416
         0.1702912130        1.2896012443        1.4591364811
         0.8579602018        1.7427103037       -0.2191251117
        -0.8714202568        0.8070485621        1.5477706947
         0.2427509753        1.5411834638       -1.1713752046
        -1.4499097613        0.7620601467       -1.0358092905
        -1.8775327946        0.4802962931        0.0078095589
         1.1025675279        1.3384685272        0.8131467496
        -0.4936238601        0.8146981818       -1.6450507034
        -1.5918138779        0.0910928984        1.0350941350
         1.6121844699        0.9160849963       -0.1175217301
         0.9349103091        0.4698250317        1.5353724703
         0.6256144804        0.5921681149       -1.6313351128
        -0.7267316110       -0.2989020783        1.6690804222
        -1.0414338739       -0.1741721861       -1.4953862474
        -1.7161900474       -0.6187739658        0.1513639391
         1.4724859879        0.2113896368       -0.9893172021
         0.3828853545       -0.5065553448        1.6698650412
        -1.2109310364       -1.0204202765       -0.7716797232
        -0.9396087196       -1.4247350862        0.2483786523
        -0.2672239364       -0.9816958516       -1.3925843338
         1.3214998964       -0.4629116005        1.0428857879
         1.7352042611       -0.1903191519        0.0332356891
        -0.3335726554       -1.2281785309        1.1764068601
         0.7526855445       -0.5124353647       -1.4746188257
         1.1877652581       -1.1656602954        0.1719737062
         0.5809005092       -1.3628076832       -0.7566434391
         0.1669678838       -1.6355507790        0.2535640330
         0.1076585966        1.1860492665        0.3643310390
        -0.4766892594        0.9805946704       -0.5619499483
        -0.8936915860        0.7058289229        0.4557489028
        -0.0712678990        0.1918164539        0.0225859320
        -0.0388438733        0.3017030383        1.0646190329
         0.6210158850        0.7364889064       -0.5457753906
        -1.0040138099       -0.0048995195       -0.4127176530
         0.8757807709        0.3452642543        0.4520683327
        -0.0821281481        0.0308613809       -1.0186234008
        -0.7381728362       -0.4014111524        0.5824611222
         0.7457776892       -0.3444280877       -0.3973258674
         0.3429471378       -0.6098558508        0.5857866160
        -0.2472484749       -0.8002957486       -0.3173797990
